# .PCD v0.7 - Point Cloud Data file format
VERSION 0.7
FIELDS x y z
SIZE 4 4 4
TYPE F F F
COUNT 1 1 1
WIDTH 1771
HEIGHT 1
VIEWPOINT 0 0 0 1 0 0 0
POINTS 1771
DATA ascii
-10 0 0
-10.0156 0 0.0429993
-10.0156 0 0.103001
-10.0469 0 0.151001
-10.0625 0 0.202999
-9.98438 0 -0.125
-10 0 -0.0919991
-10.0156 0 -0.0410004
-10.0156 0 0.012001
-10.0469 0 0.0760002
-10.0469 0.03125 0.122002
-10.0625 0.03125 0.167
-10.0781 0.03125 0.214001
-10.1094 0.03125 0.264
-9.98438 0 -0.219997
-10 0 -0.173
-10.0156 0 -0.130001
-10.0156 0 -0.0659981
-10.0156 0.03125 -0.00600052
-10.0625 0.0625 0.149002
-10.0938 0.0625 0.195999
-10.1094 0.03125 0.228001
-10.1406 0.03125 0.267002
-9.96875 0 -0.341999
-10 0 -0.314999
-10 0 -0.263
-10.0156 0 -0.209
-10.0156 0 -0.152
-10.0156 0.03125 -0.0859985
-10.1406 0.0625 0.25
-10.1719 0.0625 0.283001
-10.1875 0.0625 0.327999
-9.96875 0 -0.461998
-9.98438 0 -0.434998
-10 0 -0.395
-10 0 -0.344997
-10.0156 0 -0.294998
-10.0156 0.03125 -0.236
-10.1562 0.09375 0.277
-10.1875 0.09375 0.294003
-10.2188 0.09375 0.329002
-9.98438 0 -0.563999
-9.98438 0 -0.52
-10 0 -0.473999
-10 0.03125 -0.417999
-10 0 -0.368999
-10 0.03125 -0.305
-10.2188 0.09375 0.305
-10.25 0.09375 0.338001
-9.96875 0 -0.681
-9.98438 0 -0.646999
-10 0 -0.604
-10 0 -0.552998
-10 0 -0.506001
-10 0.03125 -0.443001
-10.25 0.125 0.319
-10.2656 0.09375 0.346001
-9.96875 0 -0.793999
-9.98438 0 -0.756001
-9.98438 0 -0.714001
-9.98438 0 -0.669998
-10 0.03125 -0.621998
-10 0.03125 -0.573997
-10 0.03125 -0.519001
-10.2656 0.125 0.325001
-10.3125 0.125 0.344002
-9.96875 0 -0.906998
-9.98438 0 -0.875
-9.98438 0 -0.829998
-9.98438 0 -0.790001
-10 0 -0.743999
-10 0.03125 -0.696999
-10 0.03125 -0.646999
-10.3125 0.15625 0.327
-10.3281 0.125 0.352001
-9.95312 0 -1.015
-9.96875 0 -0.979
-9.98438 0 -0.944
-9.98438 0 -0.901001
-9.98438 0 -0.855
-10 0.03125 -0.813
-10 0.03125 -0.766998
-10.3281 0.15625 0.333
-10.3594 0.15625 0.355
-9.92188 0 -1.147
-9.9375 -0.03125 -1.124
-9.96875 0 -1.088
-9.98438 0 -1.055
-9.98438 0 -1.011
-9.98438 0 -0.972
-10 0.03125 -0.927998
-10 0.03125 -0.884998
-10.3594 0.1875 0.34
-10.4062 0.15625 0.359001
-9.9375 -0.03125 -1.257
-9.95312 0 -1.223
-9.96875 0 -1.192
-9.96875 0 -1.153
-9.98438 0 -1.111
-9.98438 0 -1.071
-9.98438 0.03125 -1.033
-9.98438 0.03125 -0.986
-10 0.03125 -0.955997
-10.4062 0.1875 0.338001
-10.4219 0.1875 0.365002
-9.90625 -0.03125 -1.385
-9.9375 -0.03125 -1.361
-9.95312 0 -1.325
-9.96875 0 -1.294
-9.96875 0 -1.253
-9.98438 0 -1.223
-9.98438 0 -1.18
-9.98438 0.03125 -1.138
-9.98438 0.03125 -1.094
-9.96875 0.0625 -1.024
-10.4219 0.21875 0.348999
-10.4688 0.1875 0.364002
-9.90625 -0.03125 -1.48
-9.9375 -0.03125 -1.452
-9.9375 -0.03125 -1.422
-9.96875 0 -1.386
-9.96875 0 -1.35
-9.98438 0 -1.315
-9.98438 0 -1.278
-9.98438 0.03125 -1.237
-9.98438 0.03125 -1.191
-10.4688 0.21875 0.34
-10.4844 0.21875 0.371002
-9.90625 -0.03125 -1.605
-9.9375 -0.03125 -1.581
-9.9375 -0.03125 -1.547
-9.96875 0 -1.516
-9.96875 0 -1.483
-9.96875 0 -1.447
-9.96875 0 -1.41
-9.98438 0 -1.373
-9.98438 0.03125 -1.329
-9.98438 0.03125 -1.287
-10.4844 0.21875 0.348999
-10.5 0.21875 0.381001
-10.5781 0.1875 0.374001
-10.5938 0.1875 0.416
-9.90625 0 -1.693
-9.92188 -0.03125 -1.667
-9.95312 0 -1.634
-9.95312 0 -1.602
-9.96875 0 -1.569
-9.96875 0 -1.534
-9.96875 0 -1.498
-9.98438 0.03125 -1.464
-9.96875 0.03125 -1.421
-9.96875 0.03125 -1.383
-10.5 0.25 0.354
-10.5781 0.1875 0.322002
-10.6094 0.1875 0.350002
-10.6094 0.1875 0.416
-9.90625 -0.03125 -1.811
-9.90625 -0.03125 -1.782
-9.9375 -0.03125 -1.755
-9.95312 0 -1.722
-9.95312 0 -1.69
-9.96875 0 -1.656
-9.96875 0 -1.621
-9.96875 0 -1.588
-9.96875 0.03125 -1.55
-9.96875 0.03125 -1.51
-9.96875 0.0625 -1.464
-10.5 0.25 0.324001
-10.5625 0.21875 0.323002
-10.6094 0.21875 0.324001
-10.6406 0.1875 0.344002
-10.6562 0.21875 0.405003
-9.89062 -0.03125 -1.924
-9.90625 -0.03125 -1.896
-9.92188 -0.03125 -1.87
-9.9375 -0.03125 -1.84
-9.95312 0 -1.806
-9.95312 0 -1.773
-9.96875 0 -1.741
-9.96875 0 -1.711
-9.96875 0.03125 -1.677
-9.96875 0.03125 -1.638
-9.96875 0.03125 -1.6
-10.5625 0.25 0.318001
-10.5938 0.25 0.313
-10.6406 0.21875 0.318001
-10.6719 0.15625 0.331001
-10.6875 0.1875 0.399002
-10.1406 -0.34375 -2.67
-10.125 -0.3125 -2.641
-9.89062 0 -2.031
-9.90625 -0.03125 -2.009
-9.92188 -0.03125 -1.98
-9.92188 0 -1.947
-9.95312 0 -1.919
-9.95312 0 -1.89
-9.95312 0 -1.853
-9.96875 0 -1.825
-9.96875 0.03125 -1.791
-9.96875 0.03125 -1.757
-9.96875 0.03125 -1.72
-9.96875 0.0625 -1.681
-10.5469 0.3125 0.316002
-10.5781 0.28125 0.320999
-10.6406 0.25 0.311001
-10.6719 0.1875 0.308002
-10.7031 0.1875 0.322002
-10.7031 0.1875 0.383999
-10.125 -0.34375 -2.778
-10.1406 -0.34375 -2.756
-10.1719 -0.34375 -2.734
-10.1719 -0.34375 -2.708
-10.1406 -0.3125 -2.681
-10.1406 -0.3125 -2.656
-9.90625 -0.03125 -2.147
-9.90625 -0.03125 -2.114
-9.90625 0 -2.084
-9.92188 0 -2.058
-9.92188 0 -2.027
-9.95312 0 -1.998
-9.92188 0.03125 -1.953
-9.95312 0 -1.937
-9.96875 0 -1.907
-9.96875 0.03125 -1.873
-9.96875 0.03125 -1.836
-9.96875 0.0625 -1.8
-10.5625 0.3125 0.320999
-10.6094 0.28125 0.315002
-10.6562 0.28125 0.319
-10.6875 0.21875 0.313
-10.75 0.1875 0.310001
-10.7656 0.1875 0.367001
-10.1094 -0.3125 -2.807
-10.1406 -0.3125 -2.788
-10.1406 -0.3125 -2.762
-10.1875 -0.34375 -2.746
-10.1406 -0.3125 -2.713
-10.1562 -0.28125 -2.687
-10.125 -0.28125 -2.656
-9.89062 -0.03125 -2.244
-9.90625 -0.03125 -2.219
-9.90625 -0.03125 -2.193
-9.90625 0 -2.163
-9.92188 0 -2.132
-9.95312 0 -2.104
-9.90625 0.03125 -2.061
-9.95312 0 -2.04
-9.95312 0.03125 -2.012
-9.95312 0.03125 -1.979
-9.95312 0.03125 -1.945
-9.95312 0.03125 -1.914
-9.95312 0.0625 -1.879
-10.5469 0.34375 0.330002
-10.5938 0.3125 0.32
-10.6406 0.28125 0.318001
-10.6875 0.25 0.305
-10.7344 0.21875 0.310001
-10.7656 0.1875 0.313999
-10.7812 0.21875 0.362999
-10.1562 -0.28125 -2.794
-10.125 -0.28125 -2.767
-10.125 -0.28125 -2.741
-10.125 -0.25 -2.715
-10.1094 -0.25 -2.688
-10.1094 -0.25 -2.662
-9.875 -0.03125 -2.372
-9.89062 -0.03125 -2.348
-9.90625 -0.03125 -2.325
-9.92188 -0.03125 -2.298
-9.9375 -0.03125 -2.27
-9.92188 0 -2.239
-9.95312 0 -2.212
-9.96875 -0.03125 -2.192
-9.95312 0 -2.152
-9.96875 0 -2.123
-9.96875 0.03125 -2.09
-9.95312 0.03125 -2.053
-9.95312 0.0625 -2.018
-9.95312 0.0625 -1.987
-10.5781 0.375 0.327
-10.6094 0.3125 0.318001
-10.6719 0.28125 0.312
-10.7344 0.25 0.306
-10.7656 0.21875 0.308002
-10.8125 0.21875 0.311001
-10.8281 0.21875 0.358002
-10.1094 -0.25 -2.796
-10.1562 -0.25 -2.778
-10.125 -0.25 -2.748
-10.0781 -0.1875 -2.711
-10.0781 -0.1875 -2.687
-10.0938 -0.1875 -2.666
-9.875 -0.03125 -2.474
-9.89062 -0.03125 -2.448
-9.90625 -0.03125 -2.421
-9.90625 -0.03125 -2.393
-9.90625 0 -2.366
-9.92188 0 -2.338
-9.95312 0 -2.312
-9.89062 0.03125 -2.268
-9.95312 0 -2.252
-9.95312 0.03125 -2.222
-9.95312 0.03125 -2.191
-9.95312 0.03125 -2.162
-9.95312 0.03125 -2.13
-9.95312 0.0625 -2.093
-10.5938 0.34375 0.324001
-10.6562 0.3125 0.322002
-10.7188 0.28125 0.310001
-10.75 0.28125 0.310001
-10.7812 0.25 0.316002
-10.8281 0.21875 0.312
-10.8438 0.21875 0.350002
-10.1094 -0.21875 -2.803
-10.0938 -0.21875 -2.777
-10.0938 -0.1875 -2.751
-10.1562 -0.21875 -2.734
-10.1094 -0.1875 -2.702
-10.0781 -0.15625 -2.67
-9.82812 0 -2.588
-9.89062 -0.03125 -2.571
-9.89062 -0.03125 -2.543
-9.89062 -0.03125 -2.517
-9.90625 0 -2.49
-9.90625 0 -2.464
-9.92188 0 -2.437
-9.95312 0 -2.409
-9.95312 0 -2.381
-9.95312 0 -2.351
-9.95312 0.03125 -2.322
-9.95312 0.03125 -2.294
-9.95312 0.03125 -2.263
-9.95312 0.03125 -2.235
-9.95312 0.0625 -2.201
-10.5781 0.40625 0.333
-10.6406 0.34375 0.318001
-10.6875 0.34375 0.322002
-10.7344 0.28125 0.303001
-10.7656 0.28125 0.313
-10.8125 0.25 0.331001
-10.8438 0.21875 0.319
-10.875 0.21875 0.348
-10.0781 -0.1875 -2.807
-10.1094 -0.1875 -2.788
-10.0781 -0.15625 -2.754
-10.1094 -0.15625 -2.735
-10.0938 -0.15625 -2.706
-10.0625 -0.125 -2.672
-9.90625 -0.03125 -2.615
-9.90625 -0.03125 -2.586
-9.90625 0 -2.559
-9.92188 0 -2.532
-9.90625 0 -2.502
-9.92188 0 -2.475
-9.95312 0 -2.448
-9.95312 0 -2.422
-9.95312 0.03125 -2.393
-9.95312 0.03125 -2.362
-9.95312 0.03125 -2.331
-9.95312 0.0625 -2.299
-10.625 0.40625 0.32
-10.6719 0.34375 0.313
-10.7188 0.34375 0.311001
-10.75 0.3125 0.313
-10.8125 0.28125 0.306
-10.8438 0.28125 0.319
-10.875 0.25 0.315002
-10.9219 0.25 0.343002
-9.84375 -0.03125 -2.807
-10.0625 -0.125 -2.812
-10.0781 -0.125 -2.788
-10.0312 -0.125 -2.757
-10.0312 -0.09375 -2.73
-10.0312 -0.09375 -2.704
-10.0312 -0.09375 -2.676
-9.98438 -0.03125 -2.639
-9.92188 0 -2.595
-9.92188 0 -2.571
-9.95312 0 -2.544
-9.92188 0.03125 -2.514
-9.95312 0.03125 -2.485
-9.95312 0.03125 -2.458
-9.95312 0.03125 -2.429
-9.92188 0.0625 -2.396
-10.6562 0.40625 0.317001
-10.7188 0.375 0.311001
-10.75 0.34375 0.315002
-10.7812 0.3125 0.315002
-10.7812 0.34375 0.376999
-10.8438 0.3125 0.355
-10.9219 0.25 0.313
-10.9375 0.25 0.353001
-9.875 -0.03125 -2.891
-9.89062 -0.03125 -2.866
-9.89062 -0.03125 -2.848
-9.89062 -0.03125 -2.822
-10.0312 -0.09375 -2.816
-10.0312 -0.09375 -2.79
-10.0312 -0.09375 -2.763
-10.0312 -0.0625 -2.736
-10.0156 -0.0625 -2.708
-10.0156 -0.03125 -2.681
-10.0156 -0.03125 -2.653
-9.95312 0.03125 -2.608
-9.95312 0.03125 -2.581
-9.95312 0.03125 -2.552
-9.95312 0.03125 -2.525
-9.92188 0.0625 -2.494
-10.6875 0.40625 0.310001
-10.7344 0.375 0.313
-10.7656 0.375 0.329002
-10.8125 0.34375 0.34
-10.7812 0.375 0.448002
-10.8594 0.34375 0.410999
-10.9375 0.25 0.308002
-10.9531 0.25 0.346001
-9.84375 -0.03125 -3.006
-9.875 -0.03125 -2.98
-9.875 -0.03125 -2.953
-9.89062 0 -2.927
-9.89062 0 -2.902
-9.90625 0 -2.876
-9.90625 0 -2.849
-9.90625 0 -2.831
-9.90625 0 -2.804
-10.0156 -0.0625 -2.795
-9.98438 -0.03125 -2.762
-10 -0.03125 -2.739
-9.98438 0 -2.708
-10 0 -2.687
-9.98438 0 -2.656
-9.92188 0.0625 -2.614
-9.90625 0.09375 -2.58
-10.6719 0.4375 0.320999
-10.7188 0.40625 0.315002
-10.75 0.40625 0.337002
-10.8125 0.34375 0.285999
-10.8594 0.3125 0.254002
-10.8594 0.34375 0.379002
-10.8906 0.375 0.435001
-10.9531 0.28125 0.303001
-10.9844 0.28125 0.352001
-9.84375 -0.03125 -3.12
-9.875 -0.03125 -3.094
-9.875 -0.03125 -3.067
-9.89062 -0.03125 -3.042
-9.89062 0 -3.015
-9.90625 0 -2.99
-9.90625 0 -2.964
-9.90625 0 -2.937
-9.92188 0 -2.912
-9.89062 0.03125 -2.882
-9.92188 0 -2.859
-9.92188 0.03125 -2.841
-9.92188 0.03125 -2.815
-10 0 -2.799
-10 0 -2.773
-10.0469 -0.03125 -2.754
-10.0156 0 -2.722
-10.0156 0 -2.697
-9.98438 0.03125 -2.661
-10.7031 0.46875 0.320999
-10.7344 0.4375 0.346001
-10.8281 0.375 0.233002
-10.8594 0.34375 0.246002
-10.8594 0.375 0.332001
-10.8906 0.375 0.403999
-10.9062 0.375 0.441002
-11 0.28125 0.310001
-11.0156 0.28125 0.358002
-9.84375 -0.03125 -3.233
-9.875 -0.03125 -3.206
-9.875 -0.03125 -3.18
-9.89062 -0.03125 -3.154
-9.89062 -0.03125 -3.128
-9.89062 0 -3.101
-9.90625 0 -3.076
-9.90625 0 -3.05
-9.90625 0 -3.024
-9.89062 0.03125 -2.996
-9.92188 0 -2.972
-9.92188 0.03125 -2.946
-9.92188 0.03125 -2.92
-9.92188 0.03125 -2.893
-9.92188 0.03125 -2.867
-9.92188 0.0625 -2.848
-9.92188 0.0625 -2.821
-9.98438 0.03125 -2.804
-9.96875 0.03125 -2.776
-9.98438 0.03125 -2.752
-9.96875 0.0625 -2.722
-9.95312 0.0625 -2.691
-9.96875 0.0625 -2.665
-10.7344 0.46875 0.299999
-10.7969 0.40625 0.281002
-10.8438 0.375 0.250999
-10.8281 0.4375 0.392002
-10.8906 0.40625 0.355999
-10.8906 0.40625 0.444
-10.9375 0.375 0.396999
-11.0156 0.3125 0.308002
-11.0156 0.3125 0.382999
-9.82812 -0.03125 -3.346
-9.84375 -0.03125 -3.318
-9.84375 -0.03125 -3.292
-9.875 -0.03125 -3.265
-9.89062 -0.03125 -3.239
-9.89062 0 -3.213
-9.89062 0 -3.187
-9.90625 0 -3.161
-9.89062 0 -3.135
-9.89062 0 -3.109
-9.92188 0 -3.083
-9.92188 0 -3.058
-9.92188 0.03125 -3.032
-9.92188 0.03125 -3.005
-9.92188 0.03125 -2.98
-9.92188 0.03125 -2.954
-9.92188 0.0625 -2.927
-9.92188 0.0625 -2.9
-9.96875 0.0625 -2.809
-9.96875 0.0625 -2.782
-9.95312 0.09375 -2.753
-9.95312 0.09375 -2.725
-9.92188 0.09375 -2.695
-9.95312 0.09375 -2.67
-10.75 0.46875 0.319
-10.8281 0.40625 0.25
-10.8438 0.4375 0.315002
-10.8438 0.46875 0.417
-10.8906 0.4375 0.403
-10.9219 0.4375 0.440002
-10.9844 0.375 0.369999
-11.0469 0.3125 0.32
-11.0469 0.3125 0.386002
-9.8125 -0.03125 -3.459
-9.84375 -0.03125 -3.43
-9.84375 -0.03125 -3.403
-9.875 -0.03125 -3.376
-9.89062 -0.03125 -3.349
-9.89062 0 -3.323
-9.89062 0 -3.297
-9.89062 0 -3.271
-9.89062 0 -3.245
-9.89062 0.03125 -3.22
-9.90625 0 -3.194
-9.92188 0 -3.168
-9.92188 0.03125 -3.143
-9.92188 0.03125 -3.117
-9.92188 0.03125 -3.091
-9.92188 0.03125 -3.065
-9.92188 0.0625 -3.039
-9.90625 0.0625 -3.013
-9.89062 0.09375 -2.985
-9.95312 0.09375 -2.814
-9.92188 0.125 -2.784
-9.92188 0.125 -2.757
-9.96875 0.09375 -2.738
-9.92188 0.125 -2.702
-9.9375 0.15625 -2.675
-10.7969 0.5 0.309002
-10.8281 0.46875 0.348
-10.8438 0.46875 0.367001
-10.8594 0.46875 0.417999
-10.9531 0.375 0.287003
-10.9688 0.40625 0.376999
-11.0312 0.34375 0.309002
-11.0781 0.3125 0.312
-11.0781 0.34375 0.401001
-9.8125 -0.03125 -3.572
-9.82812 -0.03125 -3.542
-9.84375 -0.03125 -3.514
-9.84375 -0.03125 -3.487
-9.875 -0.03125 -3.46
-9.875 0 -3.433
-9.89062 0 -3.406
-9.89062 0 -3.381
-9.90625 0 -3.354
-9.95312 0 -3.327
-9.89062 0 -3.304
-9.89062 0.03125 -3.278
-9.90625 0.03125 -3.252
-9.92188 0.03125 -3.227
-9.92188 0.03125 -3.201
-9.90625 0.03125 -3.176
-9.92188 0.0625 -3.15
-9.90625 0.0625 -3.124
-9.90625 0.0625 -3.098
-9.92188 0.125 -2.818
-9.9375 0.15625 -2.791
-9.90625 0.15625 -2.762
-9.90625 0.15625 -2.735
-9.90625 0.1875 -2.707
-9.90625 0.1875 -2.679
-10.8125 0.5 0.324001
-10.8438 0.5 0.361
-10.875 0.5 0.382
-10.9062 0.46875 0.417
-10.9688 0.40625 0.327999
-11.0156 0.40625 0.34
-11.0625 0.375 0.337002
-11.0938 0.34375 0.313999
-9.8125 -0.03125 -3.685
-9.84375 -0.03125 -3.652
-9.84375 -0.03125 -3.625
-9.875 -0.03125 -3.596
-9.875 -0.03125 -3.57
-9.875 0 -3.543
-9.89062 0 -3.516
-9.89062 0 -3.49
-9.89062 0 -3.464
-9.9375 -0.03125 -3.434
-9.875 0.03125 -3.416
-9.92188 0 -3.385
-9.90625 0.03125 -3.31
-9.90625 0.03125 -3.285
-9.90625 0.0625 -3.259
-9.90625 0.0625 -3.234
-9.90625 0.0625 -3.209
-9.90625 0.1875 -2.824
-9.9375 0.15625 -2.8
-9.89062 0.1875 -2.768
-9.9375 0.1875 -2.747
-9.89062 0.21875 -2.713
-9.89062 0.21875 -2.683
-10.8438 0.53125 0.331001
-10.875 0.5 0.362
-10.9375 0.4375 0.280003
-10.9375 0.46875 0.374001
-11.0156 0.40625 0.309002
-11.0312 0.40625 0.341999
-11.0781 0.375 0.339001
-11.1094 0.34375 0.323002
-9.79688 0 -3.803
-9.82812 -0.03125 -3.767
-9.84375 -0.03125 -3.737
-9.84375 -0.03125 -3.708
-9.84375 -0.03125 -3.681
-9.875 0 -3.654
-9.875 0 -3.627
-9.89062 0 -3.6
-9.875 0 -3.575
-9.89062 0 -3.549
-9.875 0.03125 -3.525
-9.89062 0.03125 -3.497
-9.90625 0.03125 -3.47
-9.90625 0.03125 -3.444
-9.92188 0.03125 -3.418
-9.90625 0.03125 -3.393
-9.90625 0.03125 -3.368
-9.90625 0.0625 -3.342
-9.90625 0.0625 -3.318
-9.875 0.09375 -3.294
-9.875 0.21875 -2.826
-9.89062 0.21875 -2.801
-9.875 0.25 -2.772
-9.85938 0.25 -2.742
-9.875 0.25 -2.716
-9.85938 0.28125 -2.686
-9.85938 0.28125 -2.656
-10.875 0.53125 0.337002
-10.8906 0.53125 0.367001
-10.9219 0.5 0.389999
-11 0.46875 0.326
-11 0.46875 0.395
-11.0781 0.40625 0.320999
-11.1094 0.375 0.313999
-9.82812 -0.03125 -3.879
-9.84375 -0.03125 -3.847
-9.84375 -0.03125 -3.819
-9.84375 -0.03125 -3.792
-9.875 -0.03125 -3.763
-9.875 0 -3.737
-9.89062 0 -3.709
-9.89062 0 -3.682
-9.89062 0 -3.655
-9.875 0 -3.633
-9.90625 0 -3.602
-9.89062 0.03125 -3.579
-9.89062 0.03125 -3.554
-9.90625 0.03125 -3.527
-9.89062 0.03125 -3.503
-9.90625 0.03125 -3.476
-9.90625 0.0625 -3.451
-9.90625 0.0625 -3.427
-9.875 0.09375 -3.404
-9.85938 0.25 -2.806
-9.85938 0.28125 -2.778
-9.85938 0.28125 -2.75
-9.875 0.28125 -2.725
-9.84375 0.3125 -2.691
-9.84375 0.3125 -2.663
-10.8906 0.53125 0.327
-10.9688 0.5 0.285
-10.9688 0.5 0.355
-11 0.5 0.372002
-11.0625 0.4375 0.332001
-11.0938 0.40625 0.309002
-9.8125 -0.03125 -3.997
-9.82812 -0.03125 -3.963
-9.84375 -0.03125 -3.932
-9.84375 -0.03125 -3.905
-9.84375 -0.03125 -3.876
-9.875 0 -3.848
-9.875 0 -3.819
-9.875 0 -3.794
-9.89062 0 -3.767
-9.84375 0.03125 -3.747
-9.875 0.03125 -3.716
-9.89062 0.03125 -3.689
-9.89062 0.03125 -3.662
-9.89062 0.03125 -3.636
-9.89062 0.03125 -3.611
-9.90625 0.0625 -3.586
-9.89062 0.0625 -3.562
-9.89062 0.0625 -3.536
-9.89062 0.0625 -3.512
-9.84375 0.3125 -2.81
-9.84375 0.3125 -2.783
-9.84375 0.3125 -2.754
-9.84375 0.34375 -2.725
-9.85938 0.3125 -2.702
-9.8125 0.34375 -2.667
-10.9375 0.53125 0.308002
-10.9688 0.53125 0.348
-11 0.5 0.319
-11.0312 0.5 0.337002
-11.0781 0.4375 0.317001
-9.8125 -0.03125 -4.112
-9.82812 -0.03125 -4.079
-9.84375 -0.03125 -4.046
-9.84375 -0.03125 -4.02
-9.84375 -0.03125 -3.989
-9.875 0 -3.961
-9.875 0 -3.932
-9.875 0 -3.904
-9.89062 0 -3.877
-9.875 0 -3.851
-9.89062 0 -3.825
-9.89062 0.03125 -3.797
-9.89062 0.03125 -3.771
-9.89062 0.03125 -3.744
-9.89062 0.03125 -3.718
-9.89062 0.03125 -3.693
-9.90625 0.0625 -3.668
-9.90625 0.0625 -3.643
-9.89062 0.0625 -3.619
-9.8125 0.34375 -2.817
-9.79688 0.375 -2.784
-9.8125 0.375 -2.759
-9.79688 0.375 -2.729
-9.8125 0.375 -2.705
-9.79688 0.40625 -2.672
-10.9688 0.5625 0.325001
-10.9844 0.53125 0.336002
-11.0156 0.53125 0.334999
-11.0781 0.5 0.327999
-9.78125 -0.03125 -4.247
-9.82812 -0.03125 -4.196
-9.82812 -0.03125 -4.165
-9.84375 -0.03125 -4.134
-9.84375 -0.03125 -4.105
-9.875 -0.03125 -4.073
-9.875 0 -4.046
-9.875 0 -4.019
-9.875 0 -3.988
-9.875 0 -3.964
-9.90625 0 -3.927
-9.89062 0.03125 -3.908
-9.89062 0.03125 -3.881
-9.89062 0.03125 -3.855
-9.89062 0.03125 -3.83
-9.89062 0.03125 -3.804
-9.89062 0.0625 -3.778
-9.89062 0.0625 -3.753
-9.89062 0.0625 -3.728
-9.85938 0.09375 -3.709
-9.79688 0.375 -2.822
-9.78125 0.40625 -2.79
-9.76562 0.40625 -2.76
-9.79688 0.40625 -2.735
-9.76562 0.4375 -2.701
-9.78125 0.4375 -2.676
-10.9844 0.5625 0.34
-11.0156 0.5625 0.341
-11.0625 0.53125 0.327
-9.79688 -0.03125 -4.326
-9.82812 -0.03125 -4.287
-9.82812 -0.03125 -4.255
-9.84375 -0.03125 -4.222
-9.84375 -0.03125 -4.191
-9.84375 0 -4.161
-9.875 0 -4.132
-9.875 0 -4.104
-9.875 0 -4.076
-9.84375 0.03125 -4.06
-9.875 0 -4.021
-9.89062 0.03125 -3.992
-9.89062 0.03125 -3.964
-9.89062 0.03125 -3.939
-9.89062 0.03125 -3.913
-9.89062 0.0625 -3.887
-9.89062 0.0625 -3.864
-9.875 0.0625 -3.838
-9.875 0.09375 -3.817
-9.78125 0.40625 -2.827
-9.78125 0.4375 -2.798
-9.78125 0.4375 -2.77
-9.78125 0.4375 -2.741
-9.76562 0.46875 -2.71
-11 0.59375 0.331001
-11.0469 0.5625 0.341999
-9.8125 -0.03125 -4.414
-9.82812 -0.03125 -4.377
-9.82812 -0.03125 -4.342
-9.84375 -0.03125 -4.311
-9.84375 -0.03125 -4.28
-9.84375 0 -4.25
-9.875 0 -4.22
-9.875 0 -4.192
-9.875 0 -4.162
-9.875 0 -4.135
-9.89062 0.03125 -4.104
-9.89062 0.03125 -4.079
-9.89062 0.03125 -4.051
-9.89062 0.03125 -4.025
-9.89062 0.0625 -3.999
-9.89062 0.0625 -3.974
-9.875 0.0625 -3.95
-9.875 0.0625 -3.925
-9.78125 -0.03125 -4.559
-9.8125 -0.03125 -4.512
-9.82812 -0.03125 -4.471
-9.82812 -0.03125 -4.439
-9.84375 -0.03125 -4.404
-9.84375 0 -4.371
-9.84375 0 -4.34
-9.875 0 -4.311
-9.875 0 -4.28
-9.875 0 -4.251
-9.875 0.03125 -4.224
-9.875 0.03125 -4.195
-9.875 0.03125 -4.167
-9.875 0.03125 -4.142
-9.89062 0.03125 -4.112
-9.875 0.0625 -4.089
-9.875 0.0625 -4.06
-9.875 0.0625 -4.037
-9.85938 0.09375 -4.021
-9.79688 -0.03125 -4.65
-9.8125 -0.03125 -4.599
-9.82812 -0.03125 -4.564
-9.82812 -0.03125 -4.529
-9.84375 -0.03125 -4.497
-9.84375 0 -4.465
-9.84375 0 -4.432
-9.875 0 -4.401
-9.875 0 -4.372
-9.875 0 -4.339
-9.875 0.03125 -4.311
-9.875 0.03125 -4.283
-9.89062 0.03125 -4.254
-9.89062 0.03125 -4.225
-9.875 0.0625 -4.201
-9.875 0.0625 -4.177
-9.875 0.0625 -4.151
-9.875 0.09375 -4.125
-9.79688 -0.03125 -4.75
-9.8125 -0.03125 -4.696
-9.8125 -0.03125 -4.667
-9.82812 -0.03125 -4.627
-9.84375 -0.03125 -4.591
-9.84375 0 -4.559
-9.84375 0 -4.526
-9.875 0 -4.494
-9.84375 0 -4.47
-9.875 0 -4.432
-9.875 0.03125 -4.403
-9.875 0.03125 -4.375
-9.875 0.03125 -4.349
-9.875 0.0625 -4.319
-9.875 0.0625 -4.294
-9.875 0.0625 -4.268
-9.85938 0.0625 -4.244
-9.8125 0.09375 -4.234
-9.79688 -0.03125 -4.85
-9.8125 -0.03125 -4.802
-9.8125 -0.03125 -4.772
-9.82812 -0.03125 -4.726
-9.82812 0 -4.691
-9.84375 0 -4.658
-9.84375 0 -4.62
-9.84375 0 -4.592
-9.84375 0 -4.562
-9.875 0.03125 -4.529
-9.875 0.03125 -4.499
-9.875 0.03125 -4.467
-9.875 0.03125 -4.438
-9.875 0.0625 -4.411
-9.875 0.0625 -4.385
-9.85938 0.0625 -4.361
-9.85938 0.09375 -4.339
-9.78125 -0.03125 -4.96
-9.79688 -0.03125 -4.914
-9.8125 -0.03125 -4.875
-9.82812 -0.03125 -4.832
-9.82812 0 -4.793
-9.84375 0 -4.757
-9.84375 0 -4.719
-9.875 0 -4.685
-9.84375 0 -4.657
-9.875 0.03125 -4.623
-9.875 0.03125 -4.594
-9.875 0.03125 -4.561
-9.875 0.03125 -4.531
-9.875 0.0625 -4.507
-9.875 0.0625 -4.479
-9.85938 0.0625 -4.454
-9.78125 -0.03125 -5.075
-9.79688 -0.03125 -5.022
-9.8125 -0.03125 -4.983
-9.8125 0 -4.946
-9.82812 0 -4.898
-9.82812 0 -4.868
-9.84375 0 -4.824
-9.84375 0 -4.795
-9.84375 0 -4.755
-9.84375 0.03125 -4.726
-9.875 0.03125 -4.691
-9.84375 0.03125 -4.662
-9.85938 0.0625 -4.634
-9.85938 0.0625 -4.605
-9.85938 0.0625 -4.577
-9.85938 0.09375 -4.555
-9.79688 -0.03125 -5.132
-9.8125 -0.03125 -5.092
-9.8125 -0.03125 -5.054
-9.82812 0 -5.01
-9.84375 0 -4.962
-9.82812 0 -4.935
-9.84375 0 -4.894
-9.84375 0.03125 -4.865
-9.84375 0.03125 -4.825
-9.84375 0.03125 -4.798
-9.875 0.03125 -4.759
-9.89062 0.03125 -4.715
-9.85938 0.0625 -4.706
-9.82812 0.0625 -4.681
-9.8125 0.09375 -4.663
-9.78125 -0.03125 -5.263
-9.79688 -0.03125 -5.209
-9.8125 -0.03125 -5.16
-9.82812 0 -5.118
-9.82812 0 -5.087
-9.82812 0 -5.046
-9.82812 0 -5.012
-9.84375 0.03125 -4.971
-9.82812 0.03125 -4.942
-9.82812 0.03125 -4.906
-9.84375 0.03125 -4.87
-9.875 0.03125 -4.822
-9.78125 -0.03125 -5.342
-9.8125 -0.03125 -5.286
-9.8125 -0.03125 -5.239
-9.82812 0 -5.194
-9.82812 0 -5.154
-9.82812 0 -5.113
-9.82812 0.03125 -5.084
-9.82812 0.03125 -5.048
-9.82812 0.03125 -5.012
-9.84375 0.03125 -4.976
-9.85938 0.0625 -4.932
-9.79688 -0.03125 -5.448
-9.79688 -0.03125 -5.414
-9.8125 -0.03125 -5.367
-9.8125 0 -5.318
-9.82812 0 -5.27
-9.82812 0 -5.229
-9.82812 0 -5.191
-9.84375 0.03125 -5.154
-9.84375 0.03125 -5.119
-9.82812 0.03125 -5.088
-9.82812 0.0625 -5.055
-9.8125 -0.03125 -5.439
-9.8125 0 -5.408
-9.82812 0 -5.356
-9.82812 0 -5.317
-9.82812 0.03125 -5.273
-9.84375 0.03125 -5.231
-9.82812 0.03125 -5.201
-9.82812 0.0625 -5.165
-9.82812 0 -5.435
-9.82812 0 -5.396
-9.82812 0.03125 -5.359
-9.82812 0.03125 -5.319
-9.82812 0.03125 -5.28
-9.82812 0.03125 -5.441
-9.82812 0.03125 -5.403
-9.84375 0.03125 -5.349
-9.875 0 -5.272
-9.875 0.03125 -5.399
-9.875 0 -5.227
-9.89062 -0.03125 -5.052
-9.875 0.03125 -5.183
-9.89062 0 -5.011
-9.875 0.03125 -5.141
-9.89062 0 -4.966
-9.89062 -0.03125 -4.794
-9.89062 0.03125 -4.923
-9.90625 0 -4.75
-9.89062 0.03125 -4.879
-9.89062 0 -4.709
-9.875 0.03125 -4.839
-9.89062 -0.03125 -4.538
-9.89062 0 -4.666
-9.90625 -0.03125 -4.495
-9.92188 0 -4.451
-10.1875 -0.375 -2.704
-9.90625 -0.03125 -4.282
-9.90625 0 -4.41
-10.1875 -0.375 -2.661
-10.1875 -0.34375 -2.793
-9.90625 -0.03125 -4.238
-9.89062 0.03125 -4.37
-10.1719 -0.3125 -2.75
-9.90625 0 -4.196
-9.90625 0.03125 -4.327
-9.875 0.0625 -4.46
-10.1719 -0.3125 -2.707
-9.90625 -0.03125 -4.026
-9.92188 0 -4.155
-9.90625 0.03125 -4.286
-9.84375 0.03125 -4.422
-10.1719 -0.28125 -2.665
-10.1719 -0.25 -2.797
-9.92188 -0.03125 -3.983
-9.92188 0.03125 -4.113
-9.90625 0.0625 -4.245
-9.85938 0.0625 -4.38
-10.125 -0.28125 -2.753
-9.92188 0 -3.942
-9.92188 0.03125 -4.072
-9.89062 0.0625 -4.205
-10.1719 -0.21875 -2.713
-9.92188 0 -3.9
-9.90625 0.03125 -4.031
-9.875 0.0625 -4.164
-10.1562 -0.25 -2.67
-10.1094 -0.21875 -2.801
-9.92188 -0.03125 -3.728
-9.92188 0 -3.859
-9.90625 0.03125 -3.99
-9.85938 0.0625 -4.125
-10.1094 -0.25 -2.626
-10.1094 -0.1875 -2.76
-9.95312 0 -3.686
-9.92188 0.03125 -3.817
-9.89062 0.03125 -3.95
-9.82812 0.03125 -4.087
-10.1094 -0.1875 -2.718
-9.95312 0 -3.643
-9.92188 0.03125 -3.776
-9.875 0.03125 -3.91
-10.125 -0.15625 -2.677
-10.0781 -0.15625 -2.808
-9.92188 -0.0625 -3.471
-9.95312 0 -3.604
-9.92188 0.03125 -3.736
-9.875 0.03125 -3.87
-10.1094 -0.1875 -2.635
-10.0781 -0.15625 -2.767
-9.9375 -0.03125 -3.43
-9.95312 0.03125 -3.562
-9.90625 0.0625 -3.696
-9.85938 0.0625 -3.83
-10.0781 -0.15625 -2.726
-9.96875 0 -3.39
-9.95312 0.03125 -3.523
-9.89062 0.03125 -3.657
-10.0781 -0.125 -2.686
-10.0312 -0.125 -2.819
-9.92188 -0.03125 -3.35
-9.92188 0.03125 -3.482
-9.89062 0.0625 -3.617
-10.0781 -0.125 -2.646
-10.0625 -0.09375 -2.779
-9.9375 -0.03125 -3.177
-9.95312 0 -3.31
-9.90625 0.03125 -3.444
-9.84375 0.03125 -3.579
-10.0625 -0.0625 -2.739
-9.96875 -0.03125 -3.137
-9.95312 0.03125 -3.27
-9.92188 0.0625 -3.404
-10.0625 -0.0625 -2.698
-9.96875 0 -3.097
-9.95312 0.03125 -3.23
-9.89062 0.03125 -3.363
-10.0312 -0.0625 -2.656
-10.0469 -0.03125 -2.79
-9.96875 0 -3.056
-9.95312 0.03125 -3.189
-9.89062 0.03125 -3.323
-10.0156 -0.03125 -2.749
-9.96875 -0.03125 -2.881
-9.96875 0.03125 -3.015
-9.92188 0.03125 -3.149
-10.0156 0 -2.708
-9.96875 -0.03125 -2.84
-9.95312 0.03125 -2.974
-9.90625 0.03125 -3.108
-10.0156 0 -2.667
-10 0.03125 -2.8
-9.95312 0.03125 -2.933
-9.90625 0.03125 -3.067
-9.96875 -0.0625 -2.623
-9.98438 0.03125 -2.759
-9.95312 0.03125 -2.893
-9.98438 -0.03125 -2.583
-9.98438 0.03125 -2.72
-9.92188 0.03125 -2.852
-9.98438 0 -2.544
-10 0.0625 -2.68
-9.95312 0.0625 -2.813
-9.98438 0 -2.504
-10 0.0625 -2.64
-9.98438 0.09375 -2.775
-9.98438 0 -2.464
-9.95312 0.03125 -2.598
-9.98438 0.09375 -2.736
-9.98438 -0.03125 -2.287
-9.98438 0.03125 -2.424
-9.95312 0.03125 -2.558
-9.96875 0.09375 -2.695
-9.95312 0.125 -2.83
-10 0 -2.248
-9.98438 0.03125 -2.383
-9.95312 0.03125 -2.517
-9.96875 0.09375 -2.655
-9.95312 0.125 -2.789
-9.98438 0 -2.206
-9.96875 0.03125 -2.342
-9.92188 0.03125 -2.476
-9.92188 0.125 -2.749
-10 0 -2.165
-9.96875 0.03125 -2.301
-9.92188 0.125 -2.708
-9.98438 0 -2.123
-9.96875 0.03125 -2.259
-9.9375 0.15625 -2.668
-9.90625 0.1875 -2.802
-10 -0.03125 -1.942
-9.98438 0 -2.082
-9.95312 0.03125 -2.217
-9.90625 0.1875 -2.762
-10 -0.03125 -1.902
-9.98438 0 -2.039
-9.95312 0.03125 -2.175
-9.90625 0.1875 -2.721
-10 0 -1.861
-9.98438 0.03125 -1.999
-9.92188 0.03125 -2.133
-9.90625 0.21875 -2.682
-9.89062 0.21875 -2.817
-10 0 -1.82
-9.98438 0.03125 -1.957
-9.90625 0.21875 -2.642
-9.89062 0.25 -2.777
-10 0 -1.778
-9.98438 0.03125 -1.915
-9.89062 0.25 -2.737
-10 0 -1.739
-9.98438 0.03125 -1.875
-9.89062 0.25 -2.698
-9.84375 0.25 -2.833
-10 0 -1.697
-9.96875 0.03125 -1.833
-9.89062 0.25 -2.658
-9.875 0.28125 -2.794
-10 -0.03125 -1.515
-10.0156 0 -1.657
-9.96875 0.03125 -1.792
-9.875 0.28125 -2.754
-10 -0.03125 -1.473
-10.0156 0 -1.615
-9.96875 0.03125 -1.75
-9.875 0.28125 -2.715
-10.0156 -0.03125 -1.432
-10.0156 0 -1.573
-9.95312 0.03125 -1.706
-9.875 0.28125 -2.674
-9.85938 0.3125 -2.81
-10.0156 -0.03125 -1.39
-10 0 -1.53
-9.96875 0.03125 -1.666
-9.85938 0.3125 -2.77
-10.0156 -0.03125 -1.348
-10 0 -1.488
-9.85938 0.3125 -2.729
-10.0156 -0.03125 -1.303
-10 0 -1.444
-9.85938 0.34375 -2.688
-9.8125 0.34375 -2.824
-10.0156 -0.03125 -1.26
-10 0 -1.4
-9.85938 0.34375 -2.648
-9.84375 0.375 -2.784
-10.0156 -0.03125 -1.218
-10.0156 0.03125 -1.36
-9.84375 0.375 -2.744
-10.0156 0 -1.176
-10 0 -1.316
-9.8125 0.34375 -2.702
-10.0156 -0.03125 -1.132
-10 0 -1.272
-9.84375 0.375 -2.662
-9.82812 0.40625 -2.799
-11.1719 0.3125 0.355
-10.0469 0 -1.092
-10 0 -1.23
-9.82812 0.40625 -2.759
-10.0156 -0.03125 -1.047
-10 0 -1.188
-9.82812 0.40625 -2.719
-11.0469 0.25 0.332001
-10.0469 -0.03125 -1.005
-10.0156 0 -1.146
-9.82812 0.40625 -2.68
-11.1719 0.34375 0.341
-10.0469 -0.03125 -0.961998
-10.0156 0 -1.104
-9.79688 0.4375 -2.777
-11.1094 0.28125 0.401001
-10.0469 -0.03125 -0.919998
-10.0156 0 -1.061
-9.79688 0.4375 -2.737
-10.9688 0.21875 0.345001
-10.0469 -0.03125 -0.874001
-10.0156 0 -1.019
-9.79688 0.4375 -2.697
-11.1562 0.34375 0.336002
-10.0469 -0.03125 -0.830997
-10.0156 0 -0.973999
-9.79688 0.4375 -2.656
-11.1562 0.34375 0.379002
-10.0156 -0.03125 -0.785
-10.0156 0 -0.931999
-11.125 0.3125 0.429001
-10.0469 -0.03125 -0.744999
-10.0469 0 -0.889
-10.0469 0 -0.844997
-9.96875 0 -0.979
-11.1562 0.375 0.368
-10.0469 0 -0.800999
-10 0.03125 -0.940998
-11.1562 0.34375 0.416
-10.8594 0.15625 0.358002
-10.0625 0 -0.760998
-10 0 -0.898998
-11.0156 0.28125 0.357002
-10.0469 0 -0.715
-10 0 -0.855
-11.1562 0.375 0.360001
-10.0469 -0.03125 -0.673
-10.0156 0.03125 -0.815998
-11.125 0.375 0.407001
-10.875 0.21875 0.339001
-10.0625 -0.03125 -0.630001
-10.0156 0 -0.771
-11.125 0.34375 0.451
-10.9062 0.21875 0.376999
-10.0469 -0.03125 -0.584999
-10.0156 0 -0.728001
-11.125 0.40625 0.348
-10.875 0.25 0.280003
-10.0469 -0.03125 -0.541
-10.0469 0 -0.688999
-11.1094 0.375 0.396
-10.875 0.21875 0.325001
-10.0469 0 -0.645
-11.125 0.375 0.436001
-10.8594 0.21875 0.369999
-10.0625 0 -0.606998
-10.9375 0.25 0.390999
-10.0469 0 -0.563
-10.0156 0 -0.705997
-11.1562 0.40625 0.369999
-10.8438 0.21875 0.313999
-10.0625 0 -0.523998
-10.0156 0.03125 -0.667
-11.1094 0.375 0.423
-10.8438 0.21875 0.358002
-10.0625 -0.03125 -0.480999
-10.0156 0 -0.625
-10.875 0.21875 0.390999
-10.0625 -0.03125 -0.438
-10.0469 0 -0.584
-11.125 0.4375 0.355
-10.875 0.28125 0.288002
-10.0156 -0.0625 -0.388
-10.0469 0 -0.540001
-11.125 0.40625 0.403
-10.8438 0.21875 0.341
-10.0469 0 -0.499001
-11.1094 0.375 0.448002
-10.9062 0.25 0.372002
-10.0469 0 -0.457001
-10.0156 0.03125 -0.602001
-11.125 0.4375 0.341999
-10.9062 0.3125 0.265999
-10.0625 -0.03125 -0.415001
-10.0469 0.03125 -0.561001
-11.1094 0.40625 0.388
-10.8594 0.25 0.32
-10.0625 -0.03125 -0.373001
-10.0469 0 -0.517998
-11.1094 0.40625 0.433002
-10.8594 0.25 0.359001
-10.0625 -0.03125 -0.327999
-10.0469 0 -0.475998
-10.9219 0.28125 0.386002
-10.0625 0 -0.436001
-11.125 0.4375 0.368
-10.8594 0.28125 0.302002
-10.0625 0 -0.394001
-10 0 -0.534
-11.125 0.40625 0.410999
-10.8438 0.25 0.348
-10.0625 -0.03125 -0.348999
-10.0156 0 -0.494999
-11.0938 0.375 0.466999
-10.875 0.25 0.382
-10.0625 -0.03125 -0.305
-10.0469 0 -0.452999
-11.125 0.4375 0.353001
-10.8438 0.28125 0.291
-10.0625 -0.03125 -0.263
-10.0469 0 -0.41
-11.1094 0.40625 0.399002
-10.8438 0.25 0.333
-10.0625 0 -0.368999
-11.1094 0.40625 0.447002
-10.8594 0.25 0.373001
-10.0625 -0.03125 -0.321999
-10 0 -0.465
-11.1094 0.4375 0.343002
-10.8438 0.28125 0.274002
-10.0625 -0.03125 -0.279999
-10.0469 0 -0.426998
-11.1094 0.40625 0.389
-10.8438 0.25 0.320999
-10.0625 -0.03125 -0.232998
-10.0469 0 -0.383999
-11.1094 0.40625 0.431999
-10.8594 0.28125 0.359001
-10.0469 0 -0.339001
-11.0781 0.40625 0.341999
-10.0625 0 -0.294998
-11.125 0.4375 0.371002
-10.8438 0.28125 0.309002
-10.0625 -0.03125 -0.25
-10.0156 0 -0.395
-11.1094 0.40625 0.424
-10.8438 0.25 0.354
-10.0625 -0.03125 -0.203999
-10.0469 0 -0.354
-10.9375 0.3125 0.371002
-10.0625 0 -0.311001
-11.125 0.4375 0.360001
-10.8281 0.25 0.303001
-10.0625 0 -0.265999
-9.98438 0 -0.403
-11.1094 0.40625 0.412003
-10.8438 0.25 0.344002
-10.0625 -0.03125 -0.219997
-10.0469 0 -0.367001
-11.0938 0.375 0.463001
-10.875 0.28125 0.378002
-10.0625 -0.03125 -0.172001
-10.0469 0 -0.323997
-11.125 0.4375 0.350002
-10.8594 0.28125 0.280003
-10.0625 0 -0.279999
-11.1094 0.40625 0.397999
-10.8281 0.25 0.332001
-10.0625 -0.03125 -0.234001
-10.0156 0 -0.378998
-11.1094 0.40625 0.447002
-10.8594 0.28125 0.368999
-10.0625 -0.03125 -0.188
-10.0469 0 -0.339001
-11.1094 0.4375 0.346001
-10.0625 0 -0.295998
-11.1094 0.40625 0.388
-10.8438 0.28125 0.318001
-10.0625 0 -0.25
-11.1094 0.40625 0.436001
-10.8594 0.28125 0.357002
-10.0625 -0.03125 -0.203999
-10.0469 0 -0.350998
-10.9219 0.28125 0.389
-10.0625 0 -0.308998
-11.125 0.4375 0.372002
-10.8438 0.25 0.306
-10.0625 0 -0.263
-11.1094 0.40625 0.424
-10.8438 0.25 0.350002
-10.0625 -0.03125 -0.217999
-10.0469 0 -0.367001
-10.9062 0.25 0.385002
-10.0469 0 -0.322998
-11.125 0.40625 0.365002
-10.8281 0.25 0.303001
-10.0625 0 -0.278
-10 0 -0.419998
-11.125 0.40625 0.414001
-10.8438 0.25 0.341
-10.0625 -0.03125 -0.228001
-10.0469 0 -0.380001
-10.8594 0.25 0.385002
-10.0625 0 -0.336998
-11.1562 0.40625 0.352001
-10.0625 0 -0.291
-10.0156 0 -0.436001
-11.125 0.375 0.402
-10.8438 0.21875 0.334
-10.0625 -0.03125 -0.243
-10.0156 0 -0.391998
-11.125 0.375 0.452
-10.875 0.25 0.368999
-10.0625 0 -0.350998
-11.1562 0.40625 0.341
-10.8438 0.25 0.276001
-10.0469 -0.03125 -0.300999
-10.0156 0 -0.450001
-11.125 0.375 0.393002
-10.8438 0.21875 0.32
-10.0625 -0.03125 -0.255001
-10.0156 0 -0.404999
-11.125 0.34375 0.441002
-10.875 0.21875 0.362
-10.0625 0 -0.363998
-11.125 0.375 0.339001
-10.0625 -0.03125 -0.314999
-10.0156 0 -0.464001
-11.125 0.375 0.383999
-10.8281 0.21875 0.319
-10.0469 0 -0.419998
-11.125 0.34375 0.438
-10.8594 0.1875 0.362999
-10.0625 0 -0.373001
-10 0 -0.517998
-10.0625 -0.03125 -0.322998
-10.0469 0 -0.475998
-11.1562 0.375 0.379002
-10.8594 0.21875 0.302002
-10.0469 0 -0.431
-11.125 0.3125 0.433002
-10.8438 0.1875 0.357002
-10.0469 -0.03125 -0.382
-10.0156 0 -0.533001
-11.0781 0.3125 0.341999
-10.0469 -0.03125 -0.333
-10.0469 0 -0.487999
-11.1719 0.375 0.367001
-10.0469 0 -0.443001
-9.98438 0 -0.587997
-11.125 0.3125 0.424999
-10.0625 -0.03125 -0.394001
-10.0156 0 -0.547001
-10.0469 0 -0.500999
-11.1719 0.34375 0.362
-10.0469 -0.03125 -0.451
-10.0156 0 -0.603001
-10.9062 0.1875 0.331001
-10.0469 0 -0.558998
-10.0469 -0.03125 -0.509998
-10 0 -0.660999
-11.1719 0.3125 0.357002
-10.0469 -0.03125 -0.462997
-10.0469 0 -0.618
-10.0469 0 -0.569
-11.0469 0.25 0.334
-10.0469 -0.03125 -0.519001
-10.0156 0 -0.674999
-11.1719 0.3125 0.350002
-10.0625 0 -0.631001
-10.0469 -0.03125 -0.580997
-10 0 -0.73
-10.0469 -0.03125 -0.529999
-10.0469 0 -0.688
-10.0469 0 -0.639
-10 0 -0.786999
-10.0469 -0.03125 -0.589001
-10.0156 0 -0.743999
-10.0469 0 -0.697998
-9.9375 -0.03125 -0.835999
-10.0469 -0.03125 -0.647999
-10.0156 0 -0.801998
-10.0469 0 -0.759998
-10.0469 0 -0.788998
-10.0469 -0.03125 -0.737999
-10.0156 0.03125 -0.892998
-10.0156 -0.03125 -0.686001
-10.0156 0 -0.844997
-10.0469 0 -0.799
-10 0.03125 -0.952
-10.0469 -0.03125 -0.75
-10.0156 0 -0.905998
-10.0156 0 -0.857998
-10 0.03125 -1.011
-9.79688 0.4375 -2.697
-10.0156 -0.03125 -0.809998
-10.0156 0 -0.966999
-9.79688 0.40625 -2.652
-10.0156 0 -0.920998
-9.98438 0.03125 -1.073
-9.76562 0.4375 -2.759
-10.0156 -0.03125 -0.873001
-10.0156 0 -1.029
-9.79688 0.4375 -2.716
-10.0156 0 -0.980999
-10 0.03125 -1.135
-9.82812 0.40625 -2.671
-10.0156 -0.03125 -0.931999
-10 0 -1.089
-9.79688 0.4375 -2.779
-10.0156 0 -1.043
-9.98438 0.03125 -1.194
-9.79688 0.40625 -2.735
-10.0156 -0.03125 -0.994999
-10 0 -1.15
-9.82812 0.40625 -2.691
-10.0469 0 -1.106
-9.98438 0.03125 -1.258
-9.84375 0.375 -2.646
-9.82812 0.40625 -2.799
-10.0156 -0.03125 -1.057
-10 0 -1.213
-9.82812 0.40625 -2.755
-10.0156 0 -1.167
-9.98438 0.03125 -1.322
-9.8125 0.375 -2.711
-10 -0.03125 -1.117
-10 0 -1.276
-9.84375 0.34375 -2.667
-10.0156 0 -1.23
-10 0.03125 -1.385
-9.8125 0.375 -2.776
-10 -0.03125 -1.178
-10 0 -1.339
-9.84375 0.34375 -2.732
-10 0 -1.291
-9.98438 0.03125 -1.447
-9.85938 0.34375 -2.688
-10 0 -1.401
-9.95312 0.03125 -1.552
-9.85938 0.3125 -2.642
-9.84375 0.34375 -2.797
-10.0156 0 -1.354
-9.98438 0.03125 -1.51
-9.85938 0.34375 -2.752
-10 0 -1.465
-9.95312 0.03125 -1.617
-9.85938 0.3125 -2.708
-10 -0.03125 -1.417
-9.98438 0.03125 -1.573
-9.875 0.28125 -2.664
-9.84375 0.3125 -2.817
-10 0 -1.529
-9.98438 0.03125 -1.684
-9.85938 0.28125 -2.773
-10 -0.03125 -1.481
-10 0.03125 -1.639
-9.875 0.28125 -2.729
-10 0 -1.592
-9.98438 0.03125 -1.748
-9.875 0.25 -2.684
-9.875 0.3125 -2.84
-9.98438 -0.0625 -1.541
-10 0 -1.703
-9.95312 0.03125 -1.858
-9.875 0.28125 -2.795
-10 -0.03125 -1.655
-9.98438 0.03125 -1.812
-9.875 0.25 -2.75
-9.98438 0 -1.768
-9.96875 0.03125 -1.925
-9.875 0.21875 -2.705
-9.98438 -0.03125 -1.719
-9.98438 0 -1.879
-9.90625 0.21875 -2.662
-9.875 0.25 -2.816
-10 0 -1.834
-9.96875 0.03125 -1.989
-9.89062 0.21875 -2.773
-9.98438 -0.03125 -1.786
-9.98438 0 -1.945
-9.95312 0.03125 -2.099
-9.90625 0.21875 -2.728
-9.98438 0 -1.898
-9.98438 0.03125 -2.056
-9.9375 0.1875 -2.683
-9.89062 0.21875 -2.839
-9.98438 0 -2.01
-9.95312 0.03125 -2.165
-9.9375 0.15625 -2.638
-9.90625 0.21875 -2.795
-9.98438 -0.03125 -1.963
-9.98438 0.03125 -2.121
-9.92188 0.03125 -2.276
-9.9375 0.1875 -2.75
-9.98438 0 -2.076
-9.96875 0.03125 -2.233
-9.90625 0.125 -2.704
-9.98438 0 -2.187
-9.95312 0.03125 -2.344
-9.95312 0.125 -2.66
-9.90625 0.15625 -2.816
-9.98438 -0.03125 -2.141
-9.96875 0.03125 -2.3
-9.95312 0.15625 -2.773
-9.98438 0 -2.254
-9.95312 0.03125 -2.411
-9.95312 0.125 -2.728
-9.98438 -0.03125 -2.208
-9.98438 0.03125 -2.368
-9.92188 0.03125 -2.524
-9.96875 0.09375 -2.684
-9.98438 0 -2.322
-9.95312 0.03125 -2.48
-9.98438 0.09375 -2.64
-9.95312 0.125 -2.797
-9.96875 0 -2.436
-9.95312 0.03125 -2.593
-9.96875 0.09375 -2.753
-9.98438 -0.03125 -2.39
-9.96875 0.03125 -2.549
-9.98438 0.09375 -2.709
-9.96875 0 -2.504
-9.98438 0.0625 -2.664
-9.95312 0.0625 -2.821
-9.96875 -0.03125 -2.458
-9.96875 0.03125 -2.618
-9.96875 0.0625 -2.777
-9.96875 -0.03125 -2.573
-9.98438 0.03125 -2.734
-9.875 0.03125 -2.889
-10 0.03125 -2.69
-9.95312 0.03125 -2.847
-10 0 -2.646
-9.96875 0.03125 -2.803
-9.92188 0.0625 -2.963
-10.0156 0 -2.761
-9.95312 0.03125 -2.92
-9.90625 0.0625 -3.078
-10.0156 0 -2.717
-9.96875 0 -2.876
-9.92188 0.03125 -3.035
-10.0469 -0.03125 -2.674
-9.96875 -0.03125 -2.83
-9.95312 0.03125 -2.99
-9.90625 0.0625 -3.151
-10.0156 -0.03125 -2.79
-9.96875 0 -2.948
-9.95312 0.03125 -3.107
-10.0469 -0.03125 -2.744
-9.96875 0.03125 -3.063
-9.89062 0.03125 -3.223
-10.0625 -0.0625 -2.7
-9.9375 -0.03125 -3.02
-9.95312 0.03125 -3.179
-9.90625 0.0625 -3.339
-10.0625 -0.09375 -2.656
-10.0156 -0.0625 -2.817
-9.95312 0 -3.136
-9.92188 0.03125 -3.296
-10.0156 -0.09375 -2.771
-9.92188 -0.03125 -3.091
-9.95312 0.03125 -3.252
-9.90625 0.0625 -3.412
-10.0781 -0.09375 -2.73
-9.9375 -0.03125 -3.208
-9.95312 0.03125 -3.369
-9.875 0.0625 -3.529
-10.0781 -0.125 -2.684
-9.95312 0 -3.325
-9.92188 0.03125 -3.485
-10.0938 -0.15625 -2.64
-10.0625 -0.125 -2.801
-9.92188 -0.03125 -3.282
-9.92188 0 -3.442
-9.89062 0.03125 -3.603
-10.0312 -0.15625 -2.756
-9.95312 0 -3.399
-9.92188 0.03125 -3.56
-9.875 0.0625 -3.721
-10.0938 -0.15625 -2.712
-9.95312 0 -3.517
-9.90625 0.03125 -3.678
-10.1094 -0.1875 -2.671
-10.0781 -0.15625 -2.831
-9.92188 -0.03125 -3.474
-9.92188 0.03125 -3.635
-9.875 0.03125 -3.797
-10.0938 -0.15625 -2.787
-9.95312 0 -3.592
-9.92188 0.03125 -3.753
-9.85938 0.0625 -3.916
-10.1094 -0.1875 -2.743
-9.92188 0 -3.71
-9.89062 0.03125 -3.872
-10.125 -0.21875 -2.698
-9.92188 -0.03125 -3.667
-9.92188 0.03125 -3.828
-9.875 0.03125 -3.991
-10.125 -0.25 -2.654
-10.1094 -0.21875 -2.816
-9.90625 0 -3.786
-9.90625 0.03125 -3.947
-9.85938 0.0625 -4.113
-10.125 -0.21875 -2.772
-9.90625 0 -3.904
-9.89062 0.03125 -4.067
-10.1562 -0.25 -2.728
-9.90625 -0.03125 -3.862
-9.92188 0.03125 -4.025
-9.875 0.0625 -4.188
-10.1562 -0.28125 -2.683
-9.90625 0 -3.982
-9.90625 0.03125 -4.144
-9.85938 0.0625 -4.309
-10.1875 -0.3125 -2.637
-10.1719 -0.28125 -2.801
-9.90625 0 -4.101
-9.89062 0.03125 -4.263
-9.82812 0.0625 -4.429
-10.1719 -0.3125 -2.755
-9.89062 -0.03125 -4.058
-9.89062 0 -4.22
-9.84375 0.03125 -4.384
-10.1875 -0.3125 -2.71
-9.90625 0 -4.176
-9.90625 0.03125 -4.338
-9.85938 0.0625 -4.504
-10.1875 -0.34375 -2.665
-9.89062 0 -4.296
-9.89062 0.03125 -4.459
-9.8125 0.0625 -4.626
-10.1875 -0.34375 -2.782
-9.89062 -0.03125 -4.253
-9.89062 0 -4.415
-9.84375 0.03125 -4.58
-9.89062 -0.03125 -4.372
-9.89062 0.03125 -4.535
-9.85938 0.0625 -4.701
-9.89062 0 -4.492
-9.875 0.03125 -4.657
-9.82812 0.0625 -4.824
-9.875 -0.0625 -4.45
-9.84375 0.03125 -4.778
-9.875 -0.03125 -4.57
-9.82812 0.0625 -4.9
-9.92188 0.0625 -4.849
-9.82812 0.0625 -5.022
-9.875 0.0625 -4.974
-9.79688 0.0625 -5.146
-9.82812 0.0625 -5.097
-9.8125 0.0625 -5.221
-9.85938 0.0625 -5.296
-9.82812 0.0625 -5.421
